497.338065464101,502.2551520751853,493.1417924568314
519.029597596123,495.4071664215211,516.6424712884337
518.5842194365409,507.37763840503106,518.6190658729505
511.49513261752094,511.110287202703,506.0754795711346
517.3713988721503,507.32140650079316,519.5863588367919
495.07525641080395,496.5485840025976,491.348326152708
501.3528629319802,486.365752430896,515.3363397107888
499.33746337619567,511.6491583977068,518.4626862126947
510.31280317730034,483.0833482159804,510.5036128483739
514.8523430941597,497.82852533576676,504.9501792186182
500.4781207037542,487.3446057327211,510.34099248343637
501.051359428244,507.55042337180856,512.6698586060693
508.8653796616418,511.63422533061316,509.057867320582
513.5967648909361,489.1011523402346,508.83625528643245
491.39505823210527,496.4155207594449,499.2677371941628
511.45456410186574,504.02339093502354,501.82671997903066
504.15414467569263,491.09343497492983,487.44913884260046
482.37441042332847,507.37986738602035,496.99107381156074
515.7001722359836,490.10679101868317,482.02322448566645
508.3516158932065,484.059285292012,512.5062841317359
514.3581041922293,492.4003934157,518.5607567482122
512.4156438183136,513.6189741843671,493.5401062869058
507.09057435073146,489.2971923381569,519.6765904797965
497.5056536217151,498.5418013258216,509.9809033547993
518.765514994995,501.4687004566928,519.3325808814642
503.85467713097626,509.29488111842306,490.6138365450274
516.6831839713077,506.8207518451072,518.133358524743
511.37211674533114,516.0358283986338,502.6366321382029
490.7374345866485,516.1599521983287,505.5278998457243
514.6060497667527,512.576719791262,480.4184428073607
512.1860814179342,501.58825367648717,493.1435645906069
498.3367918415476,511.0017055772027,500.2905759369207
496.99797671516376,512.2287742863517,518.7714609776804
486.7521485760027,498.0374289866156,485.6074248079711
498.1968314458791,485.6186272964003,508.94030938326074
508.7497062303304,496.94228446805863,486.89867387898624
485.3199652735418,505.37541425088216,505.07986330307097
499.8491273080153,507.92721128309853,498.451928938003
496.02745291214416,489.07551192045116,508.031557945641
500.65080088770435,483.84997212497257,492.49775230662084
492.5716616620059,513.9179340825916,487.2881057078036
507.77988559363683,508.3101592380973,516.5764563043892
495.3058377910949,499.41115277187833,494.78739454175604
502.9710775474467,491.13564397989364,495.8996906702496
492.92155936632355,505.83731784170794,507.20780427545316
503.4217559105576,503.5593523752624,499.5384529886443
517.7710475785677,493.858300357568,507.721933335475
510.654299951446,503.91629886406395,493.30011677188395
483.36332336421833,505.23450294085666,502.39421158304293
490.40610561539614,489.2656244107495,509.4044058766501
511.1032915849116,511.99164612118227,482.74519183950633
494.09506430175855,499.32396635084757,510.8846763421987
484.5984703001088,496.035221724348,507.5680058677347
513.8994368364297,493.8988138152772,511.42139721830296
516.6292282407092,502.9626146168433,510.2671401716305
516.29028685661,510.9192034527068,507.1811976673486
482.5829222507112,497.18699746491615,495.8922635391479
508.8205229491589,482.97319560315964,510.6234202724279
503.1804360139616,500.8566420366475,509.0632271549198
519.4922715537792,500.29381213692335,501.3506087024069
491.6944449141099,500.5239488395766,495.5236565255146
513.7850115070161,508.9628829036426,485.56819841887364
502.2942729681269,491.39419720317795,509.32443918323776
510.7080967806184,501.224299865131,497.4624654848128
517.3228464412971,496.0362663929754,519.06734442792
515.4660076609842,499.44771874863824,504.98902410660196
494.98664086451765,503.4496864645249,491.8595239059333
513.1020435387067,496.22632519436655,516.9889233124065
514.0977548578413,508.50442124594696,497.45451532494945
490.7443710800186,489.5405372602063,492.33138320508294
480.1245298735949,502.1716454066962,482.6174294614592
481.1959668241276,502.9731429240714,501.13003224542916
492.5556017696989,506.04381580959745,480.4035031670244
504.6543671056369,508.1424040822048,482.61464501176323
481.0087970825055,502.8056616745741,490.0799315036228
482.2788383540943,496.7739954536557,516.6240898254003
515.675827429293,512.289367342355,497.43795271294744
506.69771425230374,485.4816739681469,505.4454480553625
495.2099143745813,517.9597652478504,519.559987376042
509.9733551455552,502.269683571409,512.176371106943
480.50389492090324,497.80425765559704,518.9417392394153
490.23082629400585,497.04240443879416,491.48004011349434
487.6808370218745,502.4368122804433,519.8192300968037
509.19905228382004,493.97411359437336,490.0290119675317
512.992122361749,489.34380457901426,504.8476436356615
483.3037165542847,494.642835702963,498.8349290348054
518.562840924938,493.2118147760945,502.3620942006144
483.1614867515019,496.7950886578172,488.9939777372883
504.59341967749725,502.8558285788074,496.109935274955
491.7059445328168,487.8212208184527,503.130831286993
492.0326184057815,489.14929352471296,500.5338845626329
514.4187011651012,494.7088267625685,517.1149798468754
513.5187788245872,504.3832464039015,498.96093767213716
509.47035806828154,495.63801154621945,494.6482545570946
481.7792911575586,496.5776217526492,482.2615859724145
516.4188909766035,494.43537417668415,485.98862149875293
514.8316432755302,494.48388180404135,501.4630516879897
491.5235889458121,493.75423670764866,486.0714898160734
517.7159353014794,493.69572510231444,484.9522522913543
512.4645096139753,490.82246772899816,518.0819990629456
512.4847192167605,496.11598212932665,482.85079263104865
503.72151393729433,487.85774272621234,508.12139647107347
519.0327042029297,495.350398736656,503.72295605084014
507.8629509445049,485.23903163520856,500.0204822524689
492.52812836392985,502.954685350534,514.7000627116175
496.0573187771506,500.7509553721012,504.6480616840625
503.2682313852351,502.0157853257788,517.1962929300723
519.3652997638231,504.2584347032747,511.16253548656374
483.8608475998608,489.39880861195934,509.30642965011464
495.364268660991,483.94861814333944,506.3434421559839
513.011577823311,508.6208739799814,502.1305308341799
484.852879007417,504.1616057410885,492.2937406525145
511.9346064203415,485.06889901944317,516.8235502601009
499.54720946858737,481.24807127729207,503.82440174431457
508.7096467561405,493.48798462904244,487.82826890914873
497.82355067384754,511.66852754492845,495.24296775740834
494.1292282488017,493.1618923869189,509.97458497485076
509.6588065191762,508.1363729411144,511.4275265421562
488.04205805117135,493.8064325865391,495.42721786952984
483.1516895727687,491.0161159230231,513.9829067847284
501.3619827235914,500.1179695850667,499.1422170529556
492.9968226438593,514.7395826391452,492.7759750579344
517.2129516379355,500.0565476915065,503.6041549144706
500.53420729408924,491.48991886873085,485.04968214905193
507.55396970911573,495.7991510812213,508.5553711516957
503.9448661208467,494.01561008392207,483.7750715766054
515.161421177143,507.26635001390235,500.09160385924554
485.0159381608292,500.61004047265084,487.39079250121546
509.2644708281614,499.9748300143755,512.207530136587
491.98343270850216,500.83558118651456,519.9288807630361
504.46075456371494,498.5110197331686,491.7232482658272
487.94401940601,514.6370731342589,480.0488587587791
519.3031765725752,500.2782652055269,511.20087798107716
486.2120028527444,511.03946720155017,519.5104934662136
480.4009704377339,498.52916147322924,486.6105720167129
483.2376277510025,504.0311500862921,490.1709620905192
491.76523345516836,485.11123228230394,486.3710855027175
496.00412401894647,507.9443460107255,487.5759620201676
483.46683241712634,489.1879327188281,512.6938814501312
515.513570387461,497.33287616927583,499.9036772769268
501.4768972185092,514.4702534506005,517.2218610445442
509.4487755605515,494.8171991209409,486.17646617017795
494.0139411063802,512.3765464971116,501.7578366179093
503.37718499140374,500.78390397779197,514.5917862162571
483.1238046940355,507.20946138480247,506.0324046398019
480.6046813844238,503.8794832805228,494.6492727018205
490.389876643226,499.6564434582397,512.2526897709031
482.82444348258196,490.3575223604352,499.7173244557535
512.291617563359,507.68651210780905,512.303350239734
480.70027060068657,501.90523645384,511.7855095048943
486.51572144137555,507.5268034191802,503.4865300785255
504.1067391324553,493.1080152565845,488.292061774926
481.25896281130036,499.1368257093262,501.2791983672507
482.94759412175415,489.9792761551243,505.97768083614926
510.4393431554401,513.5105744378382,492.6749524164484
509.59345933329166,494.37763237172135,496.1360814277971
502.325347411784,510.1570851157805,510.7233365691636
511.0591955621722,504.4507293928512,486.0309264384874
514.0284593874414,492.14573710615554,497.494687723722
507.7569988276784,495.803167075612,485.9068850282722
509.1823791370013,510.89560152581646,509.3288599910941
511.6054329294353,499.0305238639443,482.2330470824873
482.1924172817708,503.95041947028756,513.2265283930733
486.07778281899346,489.579031396983,484.2010892125976
509.18862347864433,511.8024908147306,500.2277433766509
504.3883810029026,510.9244278183258,501.4639185074499
493.6991509526335,486.4619394781182,504.76094845039523
494.38685481408936,492.80899968133633,507.2074799626345
508.9838117812659,491.2018978968893,484.3791204551317
488.1517668198682,493.1865903199628,492.28221457245473
488.59748036772703,498.48287024602854,519.2773085102372
508.3147374719881,483.0308331988019,495.30443102001834
499.2095703848216,509.3011670221363,515.1843806376734
488.4989323222372,496.7832344878633,481.4615710273051
494.4329652008821,505.40469861848055,506.07379953546547
514.1029561083466,492.67092380012417,511.9237684558493
511.11801231836864,510.6981298121076,519.3298090861242
492.5455585897884,496.72260022217745,515.4762440964051
481.9742057678403,508.1438224256504,510.56928881385596
509.10529953618965,497.7249925533527,501.0585887246249
497.10750573009204,500.37935547398337,500.84817158701657
488.76587929431685,485.29201636138083,488.9135811253519
482.27933075223314,493.6415121787338,490.39166990181036
488.45556766196177,512.7924065124863,518.5137904514434
480.55698297800836,501.91788717749154,508.12835318590356
488.92758485397496,484.08816595152905,490.1651558606616
492.59515042010264,493.3462774637828,518.077761945348
497.2832203200168,505.5122124543317,504.38951407385997
508.27087343004087,517.8719927111752,483.9408455218339
481.46981171777765,506.9918418028097,484.0541372310153
519.9469260945734,501.0903192295469,498.5915223070957
515.0117215728883,512.1794167876616,496.0241475901199
512.7533920950895,513.939114697037,516.1065027950664
494.9992978280021,495.3103186961331,502.056341899551
509.2524941820929,503.9732997069095,508.57557635892414
512.4768466004147,496.88494275173144,516.8993984472075
496.98876691025157,483.6501255948159,484.40915344562063
506.3855788978976,483.25756210726814,505.2838136647453
494.36761587149834,481.0825642281829,514.2073258192514
501.834526066748,516.7676529087008,493.78104291141227
508.3894798813037,503.43367671831163,514.9255228367491
516.6389969221693,504.42900151558956,489.6528103280517
507.98755835302336,498.4005608703219,493.4769246059725
503.8955362463313,506.1199305789114,492.06083724825817
501.17126905614975,514.1595667183705,516.281584099468
487.89177089109415,513.9871299039236,489.2246811259867
506.67497645299414,493.4007160512852,510.036513282374
507.40605029982964,499.8108359864461,497.35794250235017
518.1693017309301,505.8909447510587,480.38555950547556
516.4935786013466,491.4513570705819,488.3843660241228
485.795440678993,512.3136980431398,510.0693302306806
501.22408708955686,489.25152041334144,494.19137330386593
485.2213895278546,507.7868085987944,481.1287948002587
499.26349326401976,505.3067743935466,487.8238753123527
506.18637735287643,506.49380161396687,496.58484388983504
487.86315889305286,487.59071817067877,490.92317247365474
490.9789341880001,487.1068307530995,501.5404087648359
487.51196897587505,509.13468868301663,511.59196177212146
496.83671513274794,491.90547214846896,513.2347720219657
483.4845584287027,502.0674156146744,517.0842972262626
519.6327879932412,498.8881476603741,486.45248818452313
496.2814796946837,481.5048708496172,485.23112256074086
480.97268062523926,500.27360035013055,501.3675916457276
488.5951877244168,514.9248872567092,500.2061932180581
503.65504507456535,491.68636417185263,515.7180765002101
487.744686744753,492.827422362112,491.88023495217345
491.62878673291493,498.2001466077853,516.7147289497349
486.5987457977868,512.0622371809868,494.88823047708644
492.594674218101,508.816780359883,504.4778580663326
484.79425028808913,499.9443847938643,513.198873667475
485.218968064788,489.60375185280105,507.7178776454268
494.1927909200791,508.49015450407114,513.9250737669718
502.69342912024683,506.701692504599,486.9108038433531
490.85181397273516,502.0405437745841,488.4061913091843
482.63795598614445,491.3321840003968,496.6779653583546
519.2382178146249,499.61760900960996,496.44963466513474
496.06964706530334,511.28259218955503,498.9096102455316
483.73053550062315,505.7164833924314,501.2512926380501
486.88692901242996,496.2576372169418,488.03893676772105
488.889422747043,515.9339806876495,518.6736372205767
507.2189226639978,483.5124548706046,501.8756245067121
513.181930999228,512.9756407068488,485.25061916698746
510.74516213473004,487.10423927417264,493.4286884282657
497.6701972937128,504.36210252668894,508.06536168649006
495.4385281012849,499.8776816757601,486.9787566123498
510.8732942113784,492.2930389674011,503.4902335472472
502.5121152168395,494.810527081859,503.8547106242547
507.8727320795289,499.84450419393704,507.6814924755602
483.69573528593827,496.4876200568954,509.68989267571726
487.45297123998284,486.57999488571136,518.7895954157012
511.04544633398154,491.44092286525074,483.7970197311996
484.85582698051746,506.7240394047486,486.5987280811535
499.81575241987696,508.50605452059193,518.9605965349344
499.36272464456385,507.86262186836564,499.26865755628666
518.6535513153393,504.77584055567,483.0856074497607
503.4481002511445,489.4289633914787,497.0695174606973
518.2302066812229,496.57763831998847,503.78214474116106
491.9754358133082,487.2861021496956,517.9371173771651
508.14899521060954,516.5222288404741,481.79786118171705
519.2849958939559,498.5370683961816,489.0329449077737
483.6798484574437,504.0424460439849,515.1528188602764
500.24416543301766,512.5779913118317,506.3417574975788
507.42955535929997,493.93969195163703,500.1363959801837
488.29056739511674,503.9135298421016,503.14636427799877
480.9523425212104,494.5657415322249,516.2601692205916
480.7296360075849,501.7603602767227,498.12073667961323
513.8416199647748,503.36344334973455,513.8815015896429
484.59648877492947,505.8780317331158,516.289472363448
516.0023404297069,502.7165248242044,504.41329414398854
490.9416513894043,507.4756330732057,504.6618314810987
492.5384707973037,516.9014196027197,491.7307619383594
488.72373400861443,513.902882462713,484.1223376607746
493.1295568297498,494.1909742468673,487.2468139083755
517.9163604784219,495.29761993354873,489.3136275281049
500.46746961798027,494.8528307407374,494.5477524264502
491.49681208638987,491.3324393207671,492.23085225859165
480.08318294207186,501.57413613352486,480.23453709581526
494.4291552895431,502.031250832857,507.9252898988921
494.35021318715405,495.20516268429424,485.596522528114
500.3892384241543,518.1615920224962,498.668772783483
494.4920047206416,485.1388618273615,496.0251043497209
488.16559404493853,504.5609532494821,486.5136824455297
487.0309161230896,509.045436433601,508.61007437984557
492.5230896435311,510.5434583581189,495.71958988894306
519.670983072896,500.9920205905818,516.3006556496554
513.8935913925965,492.15343382602856,484.48693302747586
490.2716221930643,512.505868027717,496.8357643574767
509.8232686983993,497.92469573946374,481.50146978297937
500.97771742816906,516.6547478435567,489.4157681220241
519.4836003234284,501.22027806702323,480.594469852876
506.7891912111531,486.6447248497456,510.13758639270725
496.17763169360035,501.36030053114797,492.3010230915335
481.7009577525112,501.8420254169335,489.30357256592725
517.9510918303586,504.2389806710825,517.7817876253994
517.68682324156,505.3901016340612,498.5770566199688
485.9739089945489,510.90909270913664,501.76223193175764
497.9716011533773,487.8850407125589,505.534763116201
504.1866191185258,514.1929845956242,499.4364665043077
496.69990135757246,511.2180072506597,482.22223888340636
485.6640632634161,508.96418980304463,500.43239495233775
519.6864420463729,502.45193032072166,501.19812914817453
492.40602530734384,485.56729225218737,515.1356427770254
485.75564352543216,506.23326473122626,489.46046967844904
485.18640399936754,494.1963211998193,513.8094896583106
507.8980918462476,484.04441732171296,503.68744100145335
488.51830828069853,495.2762376109466,489.4940973419658
485.9686547867336,495.73540105945017,483.86481807533033
508.8662711026649,502.84573267009154,519.9075411095068
498.6731384993116,480.57593088732744,495.94896576332326
485.56793355042294,490.03431170832187,490.1896714287137
516.6260613269235,501.55321153192824,498.6861878366908
497.1844758108617,501.61269667852883,502.3327449176053
497.17012698365295,508.29270238402887,513.4495501796886
490.97434462878533,515.9454384405481,513.463287851199
497.2365265582728,483.5464793043209,500.7626566048873
511.1402410475507,502.50412684618027,494.4126652039602
503.42480926825664,497.05078933257363,516.5946824247471
481.44995976744406,506.0393913949563,490.9041666199984
490.2300626942503,511.29282604653764,483.66882255304665
517.8896861719996,502.5410082271235,506.6598477420721
495.8445713067217,480.51397888767104,517.7435673209088
494.1048467725151,507.4383255902065,503.26369759945345
481.817326839735,492.5281487067817,506.43519253185764
483.573723696284,497.71516283280175,495.50908656059386
512.982594181791,508.5953432832444,503.3928849493752
519.1366847263604,495.9045775731873,517.4584075013574
486.31748418000706,498.3366948900477,510.90181214246036
500.86566521358486,509.55591983145587,495.57062805538186
516.6887513180895,506.2154298136698,484.871580612596
510.22308846049924,507.39338315510656,512.6704854491782
492.8698994290343,493.3134118902459,489.083222440952
487.81980334031556,505.8255629566835,485.8976288880734
500.3234470960891,485.350442578383,515.0135791164907
483.88210207568176,510.69787198199737,494.20207654694616
512.9932202939954,497.71526505587144,504.02287764374404
484.8087245329084,507.50421517812805,505.7340049724071
517.9690194326976,498.9508666745911,499.44320874397937
503.2307762329538,510.52176885063153,488.80875006257753
493.28172378802094,484.0469706008929,489.33625330293705
507.47181870502715,507.4328470012666,506.5784937952048
512.5370222252212,494.9193061271749,507.36886269589115
482.266802082072,505.209948913323,511.0189211161058
485.2422934443061,488.0736240610813,497.15288344971873
492.84860557329705,516.6473563150156,513.7887478206374
509.26878017386446,496.0497737192903,483.1616860828557
492.80818605409246,501.8067591306438,508.7510118039585
504.5978108217529,517.1847746692654,480.64964697282653
518.5324119579377,504.004027032419,512.3954024854393
517.6702992657038,506.20542584201746,517.4858506019428
494.70911994244165,506.8809501874748,497.21488120883845
510.89649365586456,483.8589183189902,507.7157875966603
510.01572334225995,484.01558059215955,480.1796647711441
484.68230772406963,506.84055105968,494.510353464547
501.6322917982837,501.503182532551,515.3729056227188
484.16065897562277,488.1321028224113,491.4664815439049
490.4514689813339,494.3931681802875,488.0873706775195
501.22204249158943,515.1371008617184,491.0432838049845
493.9957433862582,510.9640818211035,516.993159522667
498.2915847336469,492.2041162068222,504.6672965628999
482.54987895646275,494.56914560205473,510.71442415270315
488.84964152440807,510.63918921787376,500.5384893204093
501.01167293276745,505.9260453912507,483.66235441591186
516.6803431986624,501.5957671569793,499.4601151952455
514.3712074041539,491.75049094535626,504.19070144423824
496.7376484221409,510.4168580457592,519.2913600634829
499.9975202013036,484.4733513863001,485.88322001809644
506.45162516008,499.8227086235246,498.17911985478185
485.0931302937271,508.46330297396855,500.31600636159857
508.28752891313144,500.76894974076487,506.61287963152677
513.7138243204271,509.73033812911535,517.2356102231881
506.71620622071305,509.78740807633443,492.84108894737085
502.20672880239937,501.6399682295454,510.4424540717828
482.00581598928017,503.7781083390808,484.3199543696075
499.7073296819802,518.6864085443922,513.9865669156295
495.57229286171037,498.68664056296,484.91813156417726
482.3224087306913,497.6690380124463,495.7130208400454
516.904588611669,502.54529038424164,482.4714446093137
486.371029890532,489.291612442665,495.5133533182403
487.44909387071925,484.5260344186105,496.2611492101678
513.8864272830609,498.96247307452876,491.31664785621365
491.1553166299859,503.63983440697655,482.03524781938023
503.59364674702897,496.6822631562563,490.1078217580738
512.9864806280565,498.97177613722994,489.6053102213778
484.8826169435368,498.0873769538033,507.52155750041703
513.3080480093953,513.1086112613738,480.46980934808977
480.32146857880537,503.42400319406175,484.8851971472198
500.70308486342924,505.28646048777006,483.55332372599486
507.3376060132802,484.5108757430522,494.9204635291017
482.7268346033856,496.83966653676544,493.42669674580753
495.71754776074624,502.41093080737363,517.2037837366264
509.69535921126345,503.5450380736745,504.7343755706029
480.60382720033056,504.2906305385537,501.0248016115275
496.9394070017727,493.0481073534227,482.9776884670818
516.5528947022133,501.02995981769817,485.1872994995258
504.9499413363546,493.9141809106264,486.9334335293785
485.6476579850139,494.40815302318197,501.4344276353456
483.86858042292846,508.40329480994956,491.44773217574505
488.14652260775824,509.295712130651,492.91430493309275
494.60599723569123,482.394289702731,481.26322752125213
498.52500922466834,502.6409638100033,487.8111503306938
514.0039342251308,498.735267565794,497.7768288927072
482.0456116347785,495.38750706256246,483.9188378101677
493.6731407512079,489.4078780549633,509.0413157160115
498.1933859718769,517.9836769504122,510.5525720188506
514.3021537526112,495.00184423950014,483.5903225603844
506.7548468321023,515.1338760037825,483.21346943567426
486.00685543109114,507.937745757972,485.14303821365326
500.56917846464404,500.1871265690147,489.2132784079615
513.6886546449581,513.3692590289089,498.2163583748597
499.2993671105007,488.80599971831,511.87985830494176
491.9057779614331,483.81109342325055,490.9300915204318
490.9934649793034,513.6842782488694,498.8426258726334
498.52540288585226,484.7472582337835,488.9653767371265
509.80190103414327,514.2992557770988,490.2494879274211
491.3739060525571,488.6349612074648,498.8746278535708
506.7452152070584,509.7427129007193,501.68997303219527
505.3391073022641,501.37712944737007,484.1201554518623
507.9305450463786,503.64856360657967,480.7220227684228
518.3289100273493,493.45454258387093,512.3081348514638
486.37828870385334,502.08891508539944,515.1137303647998
491.20374420551633,491.99760289517485,484.0192513467352
485.6727074867584,502.9528236894617,503.99513299651903
501.4330907636637,495.1014601167141,492.27790477226074
480.08320884666887,501.5279312012769,481.27448749217183
516.257816895201,494.84284019110044,505.86453912037155
507.94707694608024,491.822602020158,518.4008961009824
510.5496276327076,489.27377229864373,518.0423649278351
493.433036060355,487.1231673560576,495.3451347691258
506.3141455946312,516.9692745120931,480.14682132631043
491.4297710249176,494.22282751418214,512.1748908429475
497.9670068021245,519.6141469134947,495.3902828454644
490.89282380449504,497.7721909736078,500.50321869713565
485.0268975869801,492.381599473603,506.07400784841917
486.2192971262816,504.0043367414976,514.180997107242
510.09823901345555,499.4442484179677,516.0354877343561
485.3058841483462,487.46876459996605,503.2218875978794
484.0133952046095,497.84378054956505,506.2271018347754
484.34752689900535,498.29880780736386,504.5489171359644
500.93754467796487,515.7907138220954,504.68447723627276
504.8739765999425,507.3755057844298,483.80774482605716
488.05537956105763,484.8478614516614,507.8146058385502
494.7664019188213,488.1982791453588,503.774779475196
519.1427174833266,502.5289083568392,496.6384804142981
485.3136391133493,490.1862430783075,515.853552457529
507.16193038129643,507.8334785168799,483.22759810694834
495.6624434925601,501.8898725699781,492.07647724703054
501.7444470990381,487.070310897333,493.9310809866265
513.9417202839655,493.8185609060209,519.7687965059577
515.137274693239,508.623795979746,480.9919364825786
485.6846528103208,503.1031533912836,496.3841439105747
488.0477444196791,490.5943855179763,519.3769025512021
486.1324014086845,501.6407176827491,509.7111401368953
512.6688639454738,499.66847949051095,498.1795979833337
482.2496155099929,494.6404339086011,498.5849930726258
510.67305478326557,496.61592246574986,507.42978582224487
516.0514285916227,498.50358253271565,516.3582750775229
501.0378775522719,501.3630810018943,511.61508122773716
502.46912075543275,494.3517727511023,510.0742809725555
483.4214577207767,507.03775026351354,493.9971010530619
500.50120292574053,480.7785354053024,505.9145733351225
516.5628965147623,494.49190598469403,507.94627981512707
485.1944974907413,493.46592916471764,509.6663127258544
487.35122202369416,486.3583026884022,517.7018734128677
508.0288242514656,489.3666575787621,509.706182061323
493.4754200077581,499.93893445590055,504.8915881568433
498.18954839275574,493.933724798475,515.3966789828345
519.8901164468016,501.34279157050537,497.796628519731
509.748969402437,513.9631433898941,519.8307232786664
506.3431163447618,509.02767075265956,490.8097415264736
484.1570185040912,490.8845756417134,485.60803889411864
490.3591898666477,495.5140036553112,509.18501899180995
481.38363713419443,497.5002628137655,508.554643200009
495.849170894717,512.8651714300916,512.0618599743277
504.91158893825065,495.8896039735081,490.57202996314936
515.1644633690539,493.78810926173105,498.6406232411709
486.73388528016045,501.34131286564275,507.36236843297115
485.08578516294295,505.3936400782015,500.2223427813183
505.34980918462736,491.4263292603219,495.33620299484807
497.0840290940695,492.66167175713883,485.15973505084594
517.163033760284,492.4616493820197,513.4337885037928
491.8382716734976,488.2649639104377,501.8456497820789
493.0795189524397,484.7437485565208,497.9443569304513
496.7013637251104,503.99943933560655,500.4158348273083
514.4162964510867,508.3781956174398,516.8784861440245
517.1843017332726,492.93344452308656,491.2266033939262
507.52720344480076,503.46353428737933,506.6349920557679
499.67509302455204,510.35639574729015,518.3512691865523
480.7820636032499,502.1237004414522,489.6503702938363
500.1973009738588,504.71871462341846,509.80624823263275
488.83504863603633,495.4279116876329,506.6324848129645
487.99992687143,502.8661647259321,487.63007634356757
500.11095185999034,519.3790635776073,494.6933476726413
487.25984587580723,512.7104790392551,482.6459022337835
498.80204435632976,504.94189209808013,489.971237539927
486.78393275835816,487.5167395104536,500.3443033959079
495.8759902669239,482.19013940936486,506.22186015588454
488.39943247902954,501.32187502465234,483.70438603463145
487.9279490650827,498.06128676622063,492.73744301082183
498.8598887968355,519.9267408368011,489.41901564501705
504.37280296272263,498.2197241920132,494.9885900035908
484.4185035647177,501.7827077335091,491.0817217046401
490.5165294908795,512.5949331804075,493.4721237980474
494.9987124686514,495.02604318008076,516.0415268384395
488.08829628436706,508.87377504488717,502.49890137536823
487.3217983801208,498.0178658485299,482.3513954477744
519.4927490028116,497.3049835265336,499.6246265225372
506.1301763379668,489.4056732342968,502.74290138326353
514.6593205422521,504.9844413310277,483.3762235843694
510.29111621239946,503.21466923538947,485.0643669737638
515.6994440101046,507.92843622617926,510.6780305961575
489.294704917576,492.258682509382,482.9337452879038
482.8077848720056,491.2242316800609,481.6189702953078
495.5826644974236,491.929603201593,488.31236633839285
511.05217439307734,502.6133721513257,494.16546661184253
492.76273253934437,501.9292073861049,519.7874707039313
509.3653119807313,491.28368788696196,489.32093917818986
489.67450564834735,510.5242145176831,488.5227327115205
503.3441888605141,504.56412073582834,508.80791335461686
514.5689495784711,504.8193405226725,496.58771565659686
491.97326638343594,507.415287262732,494.889832393965
503.9181722388658,516.9430961241262,513.6860631839241
483.7822668037758,497.0542717378684,491.3196889739977
480.0776542891059,499.41139688249683,509.8416671183682
488.8020148206784,511.3422828138165,485.49379503755483
501.6325588844501,490.98817978015137,496.81553547776963
513.7251470088312,511.77746754948055,486.51662345373177
486.16054923270696,492.4597091990359,504.5080284344865
514.264366804458,492.15152252211163,506.5530578625045
517.753202214164,507.3159125130591,499.2017023339415
505.47996362019296,491.3713207112507,487.5991320721813
486.82854756123567,502.5136059230714,480.8575564901324
497.13536174150414,492.7997997252331,480.2163319850448
516.3078590534744,507.9156798778017,507.9771662945637
508.6621808448627,485.1824693325452,518.1559726223219
492.43051513876355,482.0674768049081,503.8302473811803
486.8547907645454,514.2418333107007,516.3863325562604
510.50020715085816,511.4840632501191,496.5298979340651
513.3958476772623,496.0363560020239,508.0803139119635
486.33397656517263,506.61956755864026,488.7096862857442
492.68076778991997,497.20582130019704,492.631557629158
487.4647230394162,494.3709174044758,508.15073923451325
516.8152930014766,497.12121885845545,500.187047488433
487.5474979515484,513.6916454491966,489.38442982318526
487.5929225380141,493.03325190547434,503.4906734938657
510.45612440593203,486.58072201652635,503.7885664662941
499.2763223822745,505.48366584837163,480.7648017112658
500.3358686381837,518.3464480282358,501.52369542690656
487.29578243682386,501.457758152712,518.9017465111717
519.11696990362,503.9461734123942,486.2098084504924
488.4129868648581,511.4930642155142,495.3298907099555
503.57727789323815,496.36894572799497,506.41945220644953
491.6077086486823,508.8433930368553,491.12348288527954
492.55293843380616,490.2840209709748,516.8255685798949
503.6611983681787,503.71097773775307,518.2066948528292
501.47292972324135,481.58480783647224,505.62367890232673
501.5137053795006,493.64506662899566,513.8586330156465
513.3297245436904,513.0300670889794,518.854405763118
498.1785006264993,503.6212428283611,514.7877518113273
498.83812504929796,497.77677596701716,507.99884251421054
480.0278476987348,500.48055329760024,480.2434677029169
496.33106107363756,480.52390768862733,480.43086594670126
481.2600500948901,501.64527144902735,509.1433237061984
496.1729718559954,483.2621652976328,516.460936436613
497.8858675197974,502.5831363241245,519.2678891026022
486.97490716622985,498.1442531353231,486.2940372395095
504.1960045202202,498.33109413164664,485.72934495500766
502.042621669548,483.79545415630366,487.012179113423
513.7342238655003,511.889192568849,501.21026660973433
511.2214371648579,491.6198198535485,489.2703169663464
513.1487628425141,500.16295996985076,518.3869542887977
517.4566617805741,497.46187168499455,484.33812177572145
495.259614690668,483.6594165851089,515.4461500983501
495.60408215504646,497.09967905516595,505.53054471267006
487.52788607984144,494.9592048103668,494.59888953821564
488.09647126165964,502.40370316274664,487.88374939200423
498.7237940034999,486.8823619405851,489.38664844608144
515.8916012343415,495.11775704149767,517.4599339810645
501.8054646496497,494.99782466049055,489.5160159886714
518.4046250996611,502.27168426650815,493.28789709398876
490.5960041743635,514.6824852947591,484.4449593048857
512.8112277716837,503.6007360706849,512.6836917218571
511.6212304432254,495.7208416053972,505.5307600077258
502.5860421884013,506.3696332235893,481.8653600987233
487.4357456154502,500.77757920523027,496.96797410960653
487.27087685400755,512.9686055125302,507.72120333643085
485.40327630198857,492.52957703484265,502.98626332603226
483.6681541294205,507.3608924290856,512.4681316193179
481.65402159051763,495.0556487651565,495.133679860778
500.9929044931514,500.91631213875417,514.3948385492657
491.2882065812081,497.9415479322298,503.93815893344777
496.5681608633312,500.663432650111,492.61926112981143
508.3101846197075,487.93350202397505,502.69024067706454
507.496949082598,483.7346953846673,482.56044782012384
510.6096277248804,508.45489707622266,514.5491828036428
491.3223990650864,498.62725992438476,489.8355224647201
492.5886437702517,492.45935109513107,506.47774071457826
511.52079699367766,503.0665434119817,498.9077146015963
508.1383018727778,482.42328031265305,488.8447978837849
517.3496238702037,501.08696457356103,514.1325827737345
486.1796419197641,499.12318697904186,513.852825570852
490.412197324453,483.30913403173014,484.4902919451048
495.54924712219247,501.1748133027195,509.31376970499645
494.00449148230854,516.0258760813575,483.58309506847644
512.4589796079471,496.8401822594836,496.7786706062601
483.8810881449922,499.3003694102981,498.4180784702138
519.7504708184368,501.32875272365266,498.73270351703445
500.7693578492518,487.6620159836433,480.3974970384272
518.3785054226913,500.35116439278977,512.0061322988544
518.6285212089033,505.28945090798726,498.356485231239
519.3432261517307,496.4438433653589,514.1298544438956
489.53849926185075,487.77209095777835,509.6709259835324
504.2276409276664,484.37503746011305,498.8349986076072
512.4664091575364,513.5227171511884,511.67101692700084
483.83356239148065,504.08620287925174,490.92770176514335
503.06111434603315,501.6750012900086,492.7605265393469
505.08790947301054,509.15948067048384,483.6433256511319
490.69466667383307,517.6736057424928,490.4254418581907
518.752305465535,506.33275290594236,485.90197050966344
481.1934485587129,498.22009208527254,493.07926030430775
485.1501944820148,507.81826041168534,519.7466062721667
510.1711098741242,485.78188656639605,497.68985633171087
494.3118114783948,495.22809057399047,491.8722189283871
500.38260082263764,498.78626292504384,516.510387362832
510.986078127367,499.7362431823417,512.9868149110516
503.8883615057426,503.9527117118793,512.7583232949927
490.61127391395064,489.65101314423214,492.1564754268106
496.49220901264584,502.0717283546413,490.0868636831355
503.2080454046975,506.5496715642835,508.91364378244424
510.0410600043185,487.6956778573378,510.8369893033789
515.4040476793241,491.8601554845412,503.75534691448325
484.3569107019873,496.0394309146525,515.5330209411392
507.6643960297244,487.36727137530863,497.1381856363494
489.89604314092486,505.42410718750057,493.6188547111365
497.04860829868744,480.9400284688426,512.9914531390217
502.7585651216835,508.87568337093467,486.5424001511682
509.2561220680122,489.4702841292267,506.1616211907111
498.03591504304507,485.445017703352,504.138462870503
508.1765139529166,493.83208016824506,500.2458059987823
513.6183692844139,494.93527275982353,509.8465841788724
498.7898237993774,484.377970258028,513.7798014095924
518.7152589672056,493.75813616049845,488.95198929150763
485.86858324533824,511.59142428913196,483.8801173884898
501.0179214407386,505.34727547414917,502.65618655599405
483.77240859597623,506.6954727250336,511.0907139029659
494.0522387022352,498.20658076226704,505.5275034979913
496.2040306181481,491.8601216229023,480.06028185557994
501.2099613582512,506.2599687811885,491.61723248535037
481.47732192209975,506.06970228088636,488.0914650756882
494.1569135294694,506.64027810248876,506.54041090427125
486.1794338801586,492.2546572702605,506.4231337046406
511.4066130813564,488.970496197163,494.1753879932049
516.8495618127308,494.81952238071364,493.1495384444731
488.57911876827285,513.2004572415814,496.4555195308709
486.23121372252405,512.1872732647448,510.10310799634925
498.6044673065534,499.8975761268197,496.16377953027705
501.19942625817885,491.8153180942602,511.63700038017566
515.4417428498141,494.29523408531315,516.8101610411563
495.0648975596981,486.7385249352045,488.532477446773
490.0730518334064,490.35555848217894,504.96539573894245
505.6471992822236,499.2724537142123,494.06735667364353
482.94506092921705,494.0889562304961,516.6233433779346
482.90831155394335,496.7141917508529,482.8255398451099
492.1397836755492,486.5005579783651,491.1311764451573
496.1114739516846,512.4729515422987,515.2259058068603
493.77108928126256,487.64226188470576,481.8322822781861
491.1047102244482,502.8383513822912,519.5314680436474
487.3019178388729,496.4105743079557,495.3798583803709
515.4886643901042,489.336988788217,488.4891093074207
498.6376263291542,505.0008313615092,481.0666041728733
497.5241688691575,483.02027289458704,480.48376511620097
516.1663912181621,494.33719590561253,516.5803937743407
500.2625061076011,486.76742677360835,502.56636326095384
485.71262097338695,496.20428927519725,498.98212305376154
484.16754167877014,494.4842331340203,499.9369955124567
494.5105421105504,486.28644380929677,482.98346830455125
502.8670321908051,493.66000920092216,498.1041878721607
495.9684594767709,507.9248600004764,491.32251974476253
481.79119794717684,506.2902982357668,494.47507189188076
510.14892931367996,503.83878945953415,517.1673289017651
497.9720406156618,508.47622852628535,495.59683000175573
493.0596920401397,514.9664610862104,516.8193904865316
480.2334275427087,497.5010833502107,507.571570514719
498.7415784984187,515.7032873654879,510.82956876830053
508.68811459700527,490.11490005016805,508.4820825835791
514.7608747742463,501.99995311147194,513.3090031888144
503.7560840698088,500.4805799983223,512.8335915722656
482.4962349951747,495.730883975081,514.2341198032087
491.56646909294807,495.1556027168739,501.5086889379667
500.6674273792848,492.45954720749296,486.7803896467139
502.3705661692287,489.74710448773686,507.4996386923747
498.1732253999842,487.7344451806001,491.9978652738371
486.49584896291697,506.38940818707954,518.7196218245329
517.1626088160501,509.6235596987083,508.8264311920512
510.032394104125,503.12347063972663,519.9237732131971
494.40309821151703,489.64832679791334,484.74792488431234
502.24689684072797,506.61139218253606,517.0971944886572
502.0928825177394,505.9122114617522,493.8914022255306
497.45557681140144,507.4258544698793,486.5351599179001
500.91909521284543,483.7819178141571,497.1252557771327
511.1043966713806,491.653309413119,487.2843437840762
505.25626972176275,482.95914272623264,484.10309117885373
515.700020295802,488.73293935685626,517.6227128302318
504.80414908189846,495.93128308544516,493.926471790431
489.78175901181,506.8413896117974,514.7487801904482
509.96991960814876,497.24131543704937,510.41409461032134
489.8897684418276,514.9174458521485,519.7234973606885
495.49619683185574,514.5026475069427,505.0835209137574
510.17121534670383,504.32156453865105,492.8965451186545
517.0626438491222,491.3419670828672,489.0345470171059
495.76753819036145,486.63538722268476,503.02858796787154
495.69266450352063,504.2810837996709,519.6112333506397
505.9100964566079,497.93765703545307,492.11611708927165
491.95724997880376,498.90620408862344,481.7874060322545
493.3270384737627,481.20457905820695,492.2520562726956
501.2148618326109,490.691190155479,505.3671234240367
506.13032055504567,491.48559432905637,494.705662277974
518.3233596290235,507.21823669258833,508.4498683261435
482.08824233549245,503.36539079901763,507.01187888965825
490.0263790201715,484.29279333895613,519.6129042344052
504.6120525350501,494.81512779134283,494.8573458614887
483.85198780440857,511.13672868963937,517.2085122116432
515.8415819382536,495.4818178628683,499.04406566800384
499.70714579530863,515.7204396916756,519.6556451627935
492.43015832499105,489.2783836043587,487.46525218253265
480.7920509169846,496.3648747144448,509.9141319046638
489.180031105502,501.84026262838927,515.385217193021
510.59741307519005,494.6114872794303,483.23217061330547
501.69691697385423,488.97992897620355,482.43858544422415
481.32927522884404,494.6136721165052,501.6988558017777
502.5519319977226,504.7822955160463,512.6915935468692
482.2821896496283,502.25412662490055,486.7795505057703
495.0502146196565,485.99054993053255,485.71403072784483
488.71122979448023,509.86745185301805,483.3073440966237
503.4992377466132,515.2941572282572,485.0236055927417
499.1708144941075,518.758552174138,501.4837456335068
509.81501625619615,487.90494532954915,499.36661964115933
491.9495051723619,517.7867227372067,480.7689739522126
480.1220069467705,500.55182694138915,507.92328212627183
518.1343420751213,494.26165917633557,502.3005794662844
507.66296363210745,501.92063887965344,494.93783862441103
508.3906110103308,518.1193817697066,485.6497029442748
494.195549111028,512.0390801948703,497.1035442613544
496.261163740351,516.460887711501,513.7247038035525
493.1789644125458,492.4851293678622,509.6391275306818
514.4554989301918,511.4049907513139,501.73767864239124
504.90684570541634,482.25571774464015,502.9526876229304
513.3665706468083,513.7954629045679,501.5570143595498
504.4045835094233,504.06830410154646,491.2718522886344
507.2920895965698,517.6854679678945,517.5808202557221
511.00988970397106,515.0050799419213,496.2960434559893
497.59883493514855,480.535820256328,510.92041495759827
510.63135968074977,510.19131461570504,500.44433974916194
483.09510466111567,506.7750500952273,482.6275280502951
498.11499067474824,484.16044911060345,487.5709508071002
513.6915776855034,498.98154486885034,509.8324956396094
505.64986915596586,504.2695540608679,517.1977502438866
484.76323356576063,504.24701221403853,481.3837132923544
505.4500132140132,500.32759271315297,484.0484397848917
496.02382859009134,508.4912034773842,504.5402741050552
485.78829322763085,503.3905742729674,483.09324358486833
506.7913977998493,504.5997054558484,490.18871418362113
505.18423428073373,487.2298979717711,504.6397185987337
493.4642670195013,483.0927521318321,490.2689320748926
519.8656072664515,499.52044179006293,492.3568238306764
492.27197847691406,498.74486558186646,505.11736863247467
515.8367438662132,500.6484932304032,505.465080561042
518.026732499896,492.8790057479523,498.9371911740333
502.43157526427166,493.4531643906755,495.50642459270813
506.35004077065827,494.19515776599576,502.77115076870695
506.0648204193738,511.8841335736439,491.1559824648229
496.9449842857632,483.36489734963243,490.4351148518958
489.9712605485795,494.9116394378683,517.0300305151682
510.5654968410208,494.03578112559035,512.8138076225123
496.2605423606779,509.00370247417214,489.6237497390041
499.3265222543683,498.3786054959694,506.08668650745756
492.9729696589796,489.64727748482113,512.340558050786
488.5667960693604,491.09891755170776,480.98888863664064
492.1286563831584,496.96918451160207,517.8707492747776
516.4637864323463,506.10873794380166,493.70421893085995
519.7762397115056,499.4579792073488,515.6468649034558
518.5439601055467,503.33636988294916,493.89817243886677
510.5761878148876,516.291201410364,499.50178077809767
503.33371961099505,494.1846966044035,494.74226157885437
519.7997175250076,499.01478383460733,507.3053621583805
492.7358466228362,490.25140724307994,517.0298249157244
503.03387744164127,492.3771211409802,515.2713840624408
512.9965698939071,506.3778071920083,493.9539794550416
487.385226506724,498.7870189018571,483.5081382666933
487.0069040095972,493.540342069425,496.33912835775806
509.0023260622876,482.71790013904706,513.3408241615447
505.9421212875245,481.5893993832844,506.7179033585405
499.5814529194351,515.4394234841733,501.70813664585455
502.0180874440446,480.55476836413794,513.2572679909682
504.42303757470313,516.269494476012,502.0842900696001
508.4908806870446,515.2476293746728,484.5001132785775
483.1694466467606,493.7944312182646,509.1862742099919
517.6887485914993,494.49393849298815,512.2388635815265
503.3194123128313,500.3060299668703,491.5427610202312
511.41200978668485,501.54698755604676,516.9657886777584
493.98032617601143,503.25395458261244,501.55935710152323
497.7850772391623,517.3834201603179,482.4308768812911
486.8352928166926,503.0638892525741,482.305067657176
510.34112932423864,503.2953936015999,487.2229314307724
519.7411807992394,502.4420454186405,494.51219823437776
496.2120958939326,488.46748082635577,488.14579751977203
496.1924768175565,493.91486052547936,504.8690667428716
511.47696658216097,500.43116823860777,513.0299761258689
480.47248697142055,497.7526319278054,500.02871221755413
498.0829917828355,503.6022995221058,483.2520798278133
483.5619547361598,508.963198051782,509.5815409843591
498.40311565397775,493.4013734071989,485.00374709381026
500.4237779510807,496.39214324487205,509.99562262802544
506.96137004094925,487.441047922486,501.4902081173458
517.0900708987048,503.86166512468105,517.9937253247874
492.6831234244264,515.2856691502715,516.3525382975399
497.98438968159184,480.31877450976833,484.6438422070723
488.969024614076,503.9979201767775,512.6276905673242
518.6871304884302,504.30625284701443,483.3518297127534
513.4120782489638,510.9775873688021,514.2608609415735
480.5760727383801,502.21612829823545,488.7038823198105
501.6029535378625,510.54119627553126,487.7514297775275
489.0235477403274,504.41378513867454,482.28463128650714
492.7525602792324,511.64141538731485,505.69528937773003
505.38916533012787,490.0513470496232,519.1876654257429
505.6885248099603,488.1298303819636,494.3106567465227
482.34827492276077,506.93180294823037,517.3625461284997
512.1783757850342,484.82375374613594,517.8690915064186
516.7073037636,506.45160367943646,486.37989544300154
514.6626022866113,488.51237675818425,503.67430318172956
503.61781269078125,498.7611487984193,515.1618506347415
483.81505809056125,506.34821412983865,510.7078873190281
492.1902747189486,512.5737908161111,500.27545009640875
484.0210255566871,511.6240769704549,499.27353896301094
518.7762312168699,502.7884209691353,490.8559061551275
513.1400611916556,510.22912031026846,490.5537978069369
482.7292824991298,503.4987848139995,503.26950898472757
493.34864635002697,510.58205874485554,512.707294111103
493.76593914423603,514.6306945486283,488.57443297240815
500.2457440545833,483.6985971164167,490.08158243885657
482.1402989328076,494.46072740226066,488.00965982998673
484.98796106743316,508.6725058833608,505.1252568223195
507.06341110819244,518.6039166501326,498.529501950388
512.7148286536896,513.3282071410393,496.0812970686956
482.5926188086713,490.9365507424681,519.9340421196139
513.1180569431563,485.1219091475109,511.07667568002864
514.7840640819657,487.48761417480387,514.7176057480738
503.9638241549786,503.4402920893614,501.0113556263267
481.1147568648578,497.4988486196429,491.4749055074276
484.72249989258415,496.57275300288114,500.1116825589709
483.3825200683627,509.6510790204595,491.37918985295596
490.5512883946548,492.0798235932975,507.12218137713603
503.84605706404267,506.4740771458385,519.4985522804282
481.6994114109482,500.0710595790796,505.7721465705877
481.53123361767354,502.5861632764139,482.2060717415699
500.86603287354745,497.01852761400386,507.2372154738206
516.7829409016583,502.4036775344991,506.94396978521667
494.54753387198076,513.1894161603302,496.1353651998051
496.16350526956563,494.4943574038146,503.5119794222477
493.16930514699646,511.5945634229396,507.1498176686564
507.0131403375037,503.12238411658507,512.9651597584354
517.5407104697783,490.68815286070173,480.81623806115454
505.8830378452243,486.164681914367,487.63033141080933
515.5742316195269,501.6193447748724,480.15179248279765
493.8767890909164,485.57574422950336,503.62646034720194
498.9414667345927,491.83000664808725,483.064434521973
517.4661532694229,509.16719419224034,501.442078862616
505.61412048953594,512.76767677227,493.3926721726693
499.82257974786944,518.2725824272129,499.8501709745468
486.7854346610616,487.9719346600277,496.4728588406291
493.4932553346904,491.7593813846239,503.4566280876693
519.3491821546525,504.60519487635264,496.5630033540342
498.69096085171566,516.7744674298725,515.3848434719274
517.9169370351327,495.61062410188873,519.8864147544854
494.9445004560336,482.126838047624,491.48045477753493
498.7348759585499,493.3116154851088,503.31865766506905
